16.80 0.00 3.20
16.80 0.00 4.00
16.80 0.00 5.60
16.80 0.00 6.40
16.80 0.00 7.20
16.80 0.00 8.00
16.80 0.00 8.80
16.80 0.00 9.60
16.80 0.00 10.40
16.80 0.00 11.20
16.80 0.00 12.80
16.80 0.00 13.60
16.80 0.00 14.40
16.80 0.00 15.20
16.80 0.00 16.00
16.80 0.00 16.80
16.80 0.00 17.60
16.80 0.00 18.40
16.80 0.00 19.20
16.80 0.00 20.00
16.80 0.00 20.80
16.80 0.00 22.40
16.80 0.00 23.20
16.80 0.00 24.00
16.80 0.00 24.80
16.80 0.00 25.60
16.80 0.00 26.40
16.80 0.00 27.20
16.80 0.00 28.00
16.80 0.00 29.60
16.80 0.00 30.40
16.80 0.00 31.20
16.80 0.00 32.00
16.80 0.00 32.80
16.80 0.00 33.60
16.80 0.00 34.40
16.80 0.00 35.20
16.80 0.00 36.00
16.80 0.00 36.80
16.80 0.00 37.60
16.80 0.00 39.20
16.80 0.00 40.00
16.80 0.00 40.80
16.80 0.00 41.60
16.80 0.00 42.40
16.80 0.00 43.20
16.80 0.00 44.00
16.80 0.00 44.80
16.80 0.00 46.40
16.80 0.00 47.20
16.80 0.00 48.00
16.80 0.00 48.80
16.80 0.00 49.60
16.80 0.80 0.00
16.80 0.80 0.80
16.80 0.80 1.60
16.80 0.80 2.40
16.80 0.80 9.60
16.80 0.80 14.40
16.80 0.80 15.20
16.80 0.80 16.00
16.80 0.80 16.80
16.80 0.80 17.60
16.80 0.80 18.40
16.80 0.80 19.20
16.80 0.80 26.40
16.80 0.80 31.20
16.80 0.80 32.00
16.80 0.80 32.80
16.80 0.80 33.60
16.80 0.80 34.40
16.80 0.80 35.20
16.80 0.80 36.00
16.80 0.80 43.20
16.80 0.80 48.00
16.80 0.80 48.80
16.80 0.80 49.60
16.80 1.60 0.00
16.80 1.60 0.80
16.80 1.60 16.00
16.80 1.60 16.80
16.80 1.60 17.60
16.80 1.60 32.80
16.80 1.60 33.60
16.80 1.60 34.40
16.80 1.60 49.60
16.80 2.40 0.00
16.80 2.40 0.80
16.80 2.40 16.00
16.80 2.40 16.80
16.80 2.40 17.60
16.80 2.40 32.80
16.80 2.40 33.60
16.80 2.40 34.40
16.80 2.40 49.60
16.80 3.20 0.00
16.80 3.20 16.80
16.80 3.20 33.60
16.80 13.60 0.00
16.80 13.60 16.80
16.80 13.60 33.60
16.80 14.40 0.00
16.80 14.40 0.80
16.80 14.40 16.00
16.80 14.40 16.80
16.80 14.40 17.60
16.80 14.40 32.80
16.80 14.40 33.60
16.80 14.40 34.40
16.80 14.40 49.60
16.80 15.20 0.00
16.80 15.20 0.80
16.80 15.20 16.00
16.80 15.20 16.80
16.80 15.20 17.60
16.80 15.20 32.80
16.80 15.20 33.60
16.80 15.20 34.40
16.80 15.20 49.60
16.80 16.00 0.00
16.80 16.00 0.80
16.80 16.00 1.60
16.80 16.00 2.40
16.80 16.00 7.20
16.80 16.00 9.60
16.80 16.00 14.40
16.80 16.00 15.20
16.80 16.00 16.00
16.80 16.00 16.80
16.80 16.00 17.60
16.80 16.00 18.40
16.80 16.00 19.20
16.80 16.00 23.20
16.80 16.00 24.00
16.80 16.00 26.40
16.80 16.00 31.20
16.80 16.00 32.00
16.80 16.00 32.80
16.80 16.00 33.60
16.80 16.00 34.40
16.80 16.00 35.20
16.80 16.00 36.00
16.80 16.00 40.00
16.80 16.00 40.80
16.80 16.00 43.20
16.80 16.00 48.00
16.80 16.00 48.80
16.80 16.00 49.60
16.80 16.80 0.00
16.80 16.80 0.80
16.80 16.80 1.60
16.80 16.80 2.40
16.80 16.80 3.20
16.80 16.80 4.00
16.80 16.80 5.60
16.80 16.80 6.40
16.80 16.80 7.20
16.80 16.80 8.00
16.80 16.80 8.80
16.80 16.80 9.60
16.80 16.80 10.40
16.80 16.80 11.20
16.80 16.80 12.80
16.80 16.80 13.60
16.80 16.80 14.40
16.80 16.80 15.20
16.80 16.80 16.00
16.80 16.80 16.80
16.80 16.80 17.60
16.80 16.80 18.40
16.80 16.80 19.20
16.80 16.80 20.00
16.80 16.80 20.80
16.80 16.80 22.40
16.80 16.80 23.20
16.80 16.80 24.00
16.80 16.80 24.80
16.80 16.80 25.60
16.80 16.80 26.40
16.80 16.80 27.20
16.80 16.80 28.00
16.80 16.80 29.60
16.80 16.80 30.40
16.80 16.80 31.20
16.80 16.80 32.00
16.80 16.80 32.80
16.80 16.80 33.60
16.80 16.80 34.40
16.80 16.80 35.20
16.80 16.80 36.00
16.80 16.80 36.80
16.80 16.80 37.60
16.80 16.80 39.20
16.80 16.80 40.00
16.80 16.80 40.80
16.80 16.80 41.60
16.80 16.80 42.40
16.80 16.80 43.20
16.80 16.80 44.00
16.80 16.80 44.80
16.80 16.80 46.40
16.80 16.80 47.20
16.80 16.80 48.00
16.80 16.80 48.80
16.80 16.80 49.60
16.80 17.60 0.00
16.80 17.60 0.80
16.80 17.60 1.60
16.80 17.60 2.40
16.80 17.60 9.60
16.80 17.60 14.40
16.80 17.60 15.20
16.80 17.60 16.00
16.80 17.60 16.80
16.80 17.60 17.60
16.80 17.60 18.40
16.80 17.60 19.20
16.80 17.60 24.00
16.80 17.60 26.40
16.80 17.60 31.20
16.80 17.60 32.00
16.80 17.60 32.80
16.80 17.60 33.60
16.80 17.60 34.40
16.80 17.60 35.20
16.80 17.60 36.00
16.80 17.60 43.20
16.80 17.60 48.00
16.80 17.60 48.80
16.80 17.60 49.60
16.80 18.40 0.00
16.80 18.40 0.80
16.80 18.40 16.00
16.80 18.40 16.80
16.80 18.40 17.60
16.80 18.40 32.80
16.80 18.40 33.60
16.80 18.40 34.40
16.80 18.40 49.60
16.80 19.20 0.00
16.80 19.20 0.80
16.80 19.20 16.00
16.80 19.20 16.80
16.80 19.20 17.60
16.80 19.20 32.80
16.80 19.20 33.60
16.80 19.20 34.40
16.80 19.20 49.60
16.80 20.00 0.00
16.80 20.00 16.80
16.80 20.00 33.60
16.80 24.00 30.40
16.80 24.80 12.00
16.80 24.80 29.60
16.80 24.80 30.40
16.80 25.60 9.60
16.80 25.60 10.40
16.80 25.60 11.20
16.80 25.60 12.00
16.80 25.60 16.80
16.80 25.60 30.40
16.80 26.40 9.60
16.80 26.40 10.40
16.80 26.40 11.20
16.80 26.40 12.00
16.80 26.40 12.80
16.80 26.40 16.00
16.80 26.40 16.80
16.80 26.40 17.60
16.80 26.40 20.80
16.80 26.40 21.60
16.80 26.40 22.40
16.80 26.40 23.20
16.80 26.40 24.00
16.80 26.40 24.80
16.80 26.40 30.40
16.80 27.20 9.60
16.80 27.20 10.40
16.80 27.20 11.20
16.80 27.20 12.00
16.80 27.20 12.80
16.80 27.20 13.60
16.80 27.20 14.40
16.80 27.20 15.20
16.80 27.20 16.00
16.80 27.20 16.80
16.80 27.20 17.60
16.80 27.20 18.40
16.80 27.20 19.20
16.80 27.20 20.00
16.80 27.20 20.80
16.80 27.20 21.60
16.80 27.20 22.40
16.80 27.20 23.20
16.80 27.20 24.00
16.80 27.20 24.80
16.80 28.00 9.60
16.80 28.00 10.40
16.80 28.00 11.20
16.80 28.00 12.00
16.80 28.00 12.80
16.80 28.00 13.60
16.80 28.00 14.40
16.80 28.00 15.20
16.80 28.00 16.00
16.80 28.00 16.80
16.80 28.00 17.60
16.80 28.00 18.40
16.80 28.00 19.20
16.80 28.00 20.00
16.80 28.00 20.80
16.80 28.00 21.60
16.80 28.00 22.40
16.80 28.00 23.20
16.80 28.00 24.00
16.80 28.00 24.80
16.80 28.80 9.60
16.80 28.80 10.40
16.80 28.80 11.20
16.80 28.80 12.00
16.80 28.80 12.80
16.80 28.80 13.60
16.80 28.80 14.40
16.80 28.80 15.20
16.80 28.80 16.00
16.80 28.80 16.80
16.80 28.80 17.60
16.80 28.80 18.40
16.80 28.80 19.20
16.80 28.80 20.00
16.80 28.80 20.80
16.80 28.80 21.60
16.80 28.80 22.40
16.80 28.80 23.20
16.80 28.80 24.00
16.80 28.80 24.80
16.80 28.80 25.60
16.80 29.60 9.60
16.80 29.60 10.40
16.80 29.60 11.20
16.80 29.60 12.00
16.80 29.60 12.80
16.80 29.60 13.60
16.80 29.60 14.40
16.80 29.60 15.20
16.80 29.60 16.00
16.80 29.60 16.80
16.80 29.60 17.60
16.80 29.60 18.40
16.80 29.60 19.20
16.80 29.60 20.00
16.80 29.60 20.80
16.80 29.60 21.60
16.80 29.60 22.40
16.80 29.60 23.20
16.80 29.60 24.00
16.80 29.60 24.80
16.80 29.60 25.60
16.80 30.40 0.00
16.80 30.40 10.40
16.80 30.40 11.20
16.80 30.40 12.00
16.80 30.40 12.80
16.80 30.40 13.60
16.80 30.40 14.40
16.80 30.40 15.20
16.80 30.40 16.00
16.80 30.40 16.80
16.80 30.40 17.60
16.80 30.40 18.40
16.80 30.40 19.20
16.80 30.40 20.00
16.80 30.40 20.80
16.80 30.40 21.60
16.80 30.40 22.40
16.80 30.40 23.20
16.80 30.40 24.00
16.80 30.40 24.80
16.80 30.40 25.60
16.80 30.40 26.40
16.80 30.40 33.60
16.80 31.20 0.00
16.80 31.20 0.80
16.80 31.20 10.40
16.80 31.20 11.20
16.80 31.20 12.00
16.80 31.20 12.80
16.80 31.20 13.60
16.80 31.20 14.40
16.80 31.20 15.20
16.80 31.20 16.00
16.80 31.20 16.80
16.80 31.20 17.60
16.80 31.20 18.40
16.80 31.20 19.20
16.80 31.20 20.00
16.80 31.20 20.80
16.80 31.20 21.60
16.80 31.20 22.40
16.80 31.20 23.20
16.80 31.20 32.80
16.80 31.20 33.60
16.80 31.20 34.40
16.80 31.20 49.60
16.80 32.00 0.00
16.80 32.00 0.80
16.80 32.00 10.40
16.80 32.00 11.20
16.80 32.00 12.00
16.80 32.00 12.80
16.80 32.00 13.60
16.80 32.00 14.40
16.80 32.00 15.20
16.80 32.00 16.00
16.80 32.00 16.80
16.80 32.00 17.60
16.80 32.00 18.40
16.80 32.00 19.20
16.80 32.00 20.00
16.80 32.00 20.80
16.80 32.00 21.60
16.80 32.00 22.40
16.80 32.00 23.20
16.80 32.00 32.80
16.80 32.00 33.60
16.80 32.00 34.40
16.80 32.00 49.60
16.80 32.80 0.00
16.80 32.80 0.80
16.80 32.80 1.60
16.80 32.80 2.40
16.80 32.80 6.40
16.80 32.80 7.20
16.80 32.80 9.60
16.80 32.80 10.40
16.80 32.80 11.20
16.80 32.80 12.00
16.80 32.80 12.80
16.80 32.80 13.60
16.80 32.80 14.40
16.80 32.80 15.20
16.80 32.80 16.00
16.80 32.80 16.80
16.80 32.80 17.60
16.80 32.80 18.40
16.80 32.80 19.20
16.80 32.80 20.00
16.80 32.80 20.80
16.80 32.80 21.60
16.80 32.80 22.40
16.80 32.80 23.20
16.80 32.80 24.00
16.80 32.80 25.60
16.80 32.80 26.40
16.80 32.80 31.20
16.80 32.80 32.00
16.80 32.80 32.80
16.80 32.80 33.60
16.80 32.80 34.40
16.80 32.80 35.20
16.80 32.80 36.00
16.80 32.80 40.00
16.80 32.80 40.80
16.80 32.80 43.20
16.80 32.80 48.00
16.80 32.80 48.80
16.80 32.80 49.60
16.80 33.60 0.00
16.80 33.60 0.80
16.80 33.60 1.60
16.80 33.60 2.40
16.80 33.60 3.20
16.80 33.60 4.00
16.80 33.60 5.60
16.80 33.60 6.40
16.80 33.60 7.20
16.80 33.60 8.00
16.80 33.60 8.80
16.80 33.60 9.60
16.80 33.60 10.40
16.80 33.60 11.20
16.80 33.60 12.00
16.80 33.60 12.80
16.80 33.60 13.60
16.80 33.60 14.40
16.80 33.60 15.20
16.80 33.60 16.00
16.80 33.60 16.80
16.80 33.60 17.60
16.80 33.60 18.40
16.80 33.60 19.20
16.80 33.60 20.00
16.80 33.60 20.80
16.80 33.60 21.60
16.80 33.60 22.40
16.80 33.60 23.20
16.80 33.60 24.00
16.80 33.60 24.80
16.80 33.60 25.60
16.80 33.60 26.40
16.80 33.60 27.20
16.80 33.60 28.00
16.80 33.60 29.60
16.80 33.60 30.40
16.80 33.60 31.20
16.80 33.60 32.00
16.80 33.60 32.80
16.80 33.60 33.60
16.80 33.60 34.40
16.80 33.60 35.20
16.80 33.60 36.00
16.80 33.60 36.80
16.80 33.60 37.60
16.80 33.60 39.20
16.80 33.60 40.00
16.80 33.60 40.80
16.80 33.60 41.60
16.80 33.60 42.40
16.80 33.60 43.20
16.80 33.60 44.00
16.80 33.60 44.80
16.80 33.60 46.40
16.80 33.60 47.20
16.80 33.60 48.00
16.80 33.60 48.80
16.80 33.60 49.60
16.80 34.40 0.00
16.80 34.40 0.80
16.80 34.40 1.60
16.80 34.40 2.40
16.80 34.40 9.60
16.80 34.40 10.40
16.80 34.40 11.20
16.80 34.40 12.00
16.80 34.40 12.80
16.80 34.40 13.60
16.80 34.40 14.40
16.80 34.40 15.20
16.80 34.40 16.00
16.80 34.40 16.80
16.80 34.40 17.60
16.80 34.40 18.40
16.80 34.40 19.20
16.80 34.40 20.00
16.80 34.40 20.80
16.80 34.40 21.60
16.80 34.40 22.40
16.80 34.40 23.20
16.80 34.40 26.40
16.80 34.40 31.20
16.80 34.40 32.00
16.80 34.40 32.80
16.80 34.40 33.60
16.80 34.40 34.40
16.80 34.40 35.20
16.80 34.40 36.00
16.80 34.40 43.20
16.80 34.40 48.00
16.80 34.40 48.80
16.80 34.40 49.60
16.80 35.20 0.00
16.80 35.20 0.80
16.80 35.20 10.40
16.80 35.20 11.20
16.80 35.20 12.00
16.80 35.20 12.80
16.80 35.20 13.60
16.80 35.20 14.40
16.80 35.20 15.20
16.80 35.20 16.00
16.80 35.20 16.80
16.80 35.20 17.60
16.80 35.20 18.40
16.80 35.20 19.20
16.80 35.20 20.00
16.80 35.20 20.80
16.80 35.20 21.60
16.80 35.20 22.40
16.80 35.20 23.20
16.80 35.20 32.80
16.80 35.20 33.60
16.80 35.20 34.40
16.80 35.20 49.60
16.80 36.00 0.00
16.80 36.00 0.80
16.80 36.00 10.40
16.80 36.00 11.20
16.80 36.00 12.00
16.80 36.00 12.80
16.80 36.00 13.60
16.80 36.00 14.40
16.80 36.00 15.20
16.80 36.00 16.00
16.80 36.00 16.80
16.80 36.00 17.60
16.80 36.00 18.40
16.80 36.00 19.20
16.80 36.00 20.00
16.80 36.00 20.80
16.80 36.00 21.60
16.80 36.00 22.40
16.80 36.00 23.20
16.80 36.00 32.80
16.80 36.00 33.60
16.80 36.00 34.40
16.80 36.00 49.60
16.80 36.80 0.00
16.80 36.80 10.40
16.80 36.80 11.20
16.80 36.80 12.00
16.80 36.80 12.80
16.80 36.80 13.60
16.80 36.80 14.40
16.80 36.80 15.20
16.80 36.80 16.00
16.80 36.80 16.80
16.80 36.80 17.60
16.80 36.80 18.40
16.80 36.80 19.20
16.80 36.80 20.00
16.80 36.80 20.80
16.80 36.80 21.60
16.80 36.80 22.40
16.80 36.80 23.20
16.80 36.80 33.60
16.80 37.60 9.60
16.80 37.60 10.40
16.80 37.60 11.20
16.80 37.60 12.00
16.80 37.60 12.80
16.80 37.60 13.60
16.80 37.60 14.40
16.80 37.60 15.20
16.80 37.60 16.00
16.80 37.60 16.80
16.80 37.60 17.60
16.80 37.60 18.40
16.80 37.60 19.20
16.80 37.60 20.00
16.80 37.60 20.80
16.80 37.60 21.60
16.80 37.60 22.40
16.80 37.60 23.20
16.80 38.40 8.00
16.80 38.40 8.80
16.80 38.40 9.60
16.80 38.40 10.40
16.80 38.40 11.20
16.80 38.40 12.00
16.80 38.40 12.80
16.80 38.40 13.60
16.80 38.40 14.40
16.80 38.40 15.20
16.80 38.40 16.00
16.80 38.40 16.80
16.80 38.40 17.60
16.80 38.40 18.40
16.80 38.40 19.20
16.80 38.40 20.00
16.80 38.40 20.80
16.80 38.40 21.60
16.80 38.40 22.40
16.80 38.40 23.20
16.80 38.40 24.00
16.80 39.20 8.80
16.80 39.20 9.60
16.80 39.20 10.40
16.80 39.20 11.20
16.80 39.20 12.00
16.80 39.20 12.80
16.80 39.20 13.60
16.80 39.20 14.40
16.80 39.20 15.20
16.80 39.20 16.00
16.80 39.20 16.80
16.80 39.20 17.60
16.80 39.20 18.40
16.80 39.20 19.20
16.80 39.20 20.00
16.80 39.20 20.80
16.80 39.20 21.60
16.80 39.20 22.40
16.80 39.20 23.20
16.80 39.20 24.00
16.80 40.00 8.80
16.80 40.00 9.60
16.80 40.00 10.40
16.80 40.00 11.20
16.80 40.00 12.00
16.80 40.00 12.80
16.80 40.00 13.60
16.80 40.00 14.40
16.80 40.00 15.20
16.80 40.00 16.00
16.80 40.00 16.80
16.80 40.00 17.60
16.80 40.00 18.40
16.80 40.00 19.20
16.80 40.00 20.00
16.80 40.00 20.80
16.80 40.00 21.60
16.80 40.00 22.40
16.80 40.00 23.20
16.80 40.00 24.00
16.80 40.80 8.80
16.80 40.80 9.60
16.80 40.80 10.40
16.80 40.80 11.20
16.80 40.80 12.00
16.80 40.80 16.00
16.80 40.80 16.80
16.80 40.80 21.60
16.80 40.80 22.40
16.80 40.80 23.20
16.80 40.80 24.00
16.80 41.60 16.80
16.80 41.60 21.60
16.80 41.60 22.40
16.80 41.60 23.20
16.80 41.60 24.00
16.80 42.40 21.60
16.80 47.20 0.00
16.80 47.20 16.80
16.80 47.20 33.60
16.80 48.00 0.00
16.80 48.00 0.80
16.80 48.00 16.00
16.80 48.00 16.80
16.80 48.00 17.60
16.80 48.00 32.80
16.80 48.00 33.60
16.80 48.00 34.40
16.80 48.00 49.60
16.80 48.80 0.00
16.80 48.80 0.80
16.80 48.80 16.00
16.80 48.80 16.80
16.80 48.80 17.60
16.80 48.80 32.80
16.80 48.80 33.60
16.80 48.80 34.40
16.80 48.80 49.60
16.80 49.60 0.00
16.80 49.60 0.80
16.80 49.60 1.60
16.80 49.60 2.40
16.80 49.60 6.40
16.80 49.60 7.20
16.80 49.60 9.60
16.80 49.60 14.40
16.80 49.60 15.20
16.80 49.60 16.00
16.80 49.60 16.80
16.80 49.60 17.60
16.80 49.60 18.40
16.80 49.60 19.20
16.80 49.60 23.20
16.80 49.60 24.00
16.80 49.60 26.40
16.80 49.60 31.20
16.80 49.60 32.00
16.80 49.60 32.80
16.80 49.60 33.60
16.80 49.60 34.40
16.80 49.60 35.20
16.80 49.60 36.00
16.80 49.60 40.00
16.80 49.60 40.80
16.80 49.60 43.20
16.80 49.60 48.00
16.80 49.60 48.80
16.80 49.60 49.60
17.60 0.00 0.00
17.60 0.00 0.80
17.60 0.00 1.60
17.60 0.00 2.40
17.60 0.00 7.20
17.60 0.00 9.60
17.60 0.00 14.40
17.60 0.00 15.20
17.60 0.00 16.00
17.60 0.00 16.80
17.60 0.00 17.60
17.60 0.00 18.40
17.60 0.00 19.20
17.60 0.00 24.00
17.60 0.00 26.40
17.60 0.00 31.20
17.60 0.00 32.00
17.60 0.00 32.80
17.60 0.00 33.60
17.60 0.00 34.40
17.60 0.00 35.20
17.60 0.00 36.00
17.60 0.00 40.80
17.60 0.00 43.20
17.60 0.00 48.00
17.60 0.00 48.80
17.60 0.00 49.60
17.60 0.80 0.00
17.60 0.80 16.80
17.60 0.80 33.60
17.60 1.60 0.00
17.60 1.60 16.80
17.60 1.60 33.60
17.60 2.40 0.00
17.60 2.40 16.80
17.60 2.40 33.60
17.60 4.00 7.20
17.60 4.00 8.00
17.60 4.00 24.00
17.60 4.00 24.80
17.60 4.00 40.80
17.60 4.00 41.60
17.60 8.80 4.00
17.60 8.80 20.80
17.60 8.80 37.60
17.60 9.60 4.00
17.60 14.40 0.00
17.60 14.40 16.80
17.60 14.40 33.60
17.60 15.20 0.00
17.60 15.20 16.80
17.60 15.20 33.60
17.60 16.00 0.00
17.60 16.00 16.80
17.60 16.00 33.60
17.60 16.80 0.00
17.60 16.80 0.80
17.60 16.80 1.60
17.60 16.80 2.40
17.60 16.80 7.20
17.60 16.80 9.60
17.60 16.80 14.40
17.60 16.80 15.20
17.60 16.80 16.00
17.60 16.80 16.80
17.60 16.80 17.60
17.60 16.80 18.40
17.60 16.80 19.20
17.60 16.80 24.00
17.60 16.80 26.40
17.60 16.80 31.20
17.60 16.80 32.00
17.60 16.80 32.80
17.60 16.80 33.60
17.60 16.80 34.40
17.60 16.80 35.20
17.60 16.80 36.00
17.60 16.80 40.80
17.60 16.80 43.20
17.60 16.80 48.00
17.60 16.80 48.80
17.60 16.80 49.60
17.60 17.60 0.00
17.60 17.60 16.80
17.60 17.60 23.20
17.60 17.60 24.00
17.60 17.60 24.80
17.60 17.60 25.60
17.60 17.60 26.40
17.60 17.60 27.20
17.60 17.60 33.60
17.60 18.40 0.00
17.60 18.40 16.80
17.60 18.40 24.00
17.60 18.40 24.80
17.60 18.40 25.60
17.60 18.40 26.40
17.60 18.40 33.60
17.60 19.20 0.00
17.60 19.20 16.80
17.60 19.20 23.20
17.60 19.20 24.00
17.60 19.20 26.40
17.60 19.20 33.60
17.60 20.00 24.00
17.60 20.00 26.40
17.60 20.80 7.20
17.60 20.80 8.00
17.60 20.80 24.00
17.60 20.80 24.80
17.60 20.80 40.80
17.60 20.80 41.60
17.60 23.20 19.20
17.60 24.00 19.20
17.60 24.00 20.00
17.60 24.00 29.60
17.60 24.00 30.40
17.60 24.00 31.20
17.60 24.80 12.00
17.60 24.80 18.40
17.60 24.80 29.60
17.60 24.80 30.40
17.60 24.80 31.20
17.60 24.80 32.00
17.60 25.60 4.00
17.60 25.60 10.40
17.60 25.60 11.20
17.60 25.60 12.00
17.60 25.60 17.60
17.60 25.60 18.40
17.60 25.60 20.80
17.60 25.60 24.00
17.60 25.60 24.80
17.60 25.60 30.40
17.60 25.60 31.20
17.60 25.60 32.00
17.60 25.60 37.60
17.60 26.40 10.40
17.60 26.40 11.20
17.60 26.40 12.00
17.60 26.40 16.80
17.60 26.40 17.60
17.60 26.40 18.40
17.60 26.40 19.20
17.60 26.40 20.00
17.60 26.40 20.80
17.60 26.40 21.60
17.60 26.40 22.40
17.60 26.40 23.20
17.60 26.40 24.00
17.60 26.40 24.80
17.60 26.40 30.40
17.60 26.40 31.20
17.60 27.20 9.60
17.60 27.20 10.40
17.60 27.20 11.20
17.60 27.20 12.00
17.60 27.20 12.80
17.60 27.20 16.80
17.60 27.20 17.60
17.60 27.20 18.40
17.60 27.20 19.20
17.60 27.20 20.00
17.60 27.20 20.80
17.60 27.20 21.60
17.60 27.20 22.40
17.60 27.20 23.20
17.60 27.20 24.00
17.60 27.20 24.80
17.60 28.00 9.60
17.60 28.00 10.40
17.60 28.00 11.20
17.60 28.00 12.00
17.60 28.00 12.80
17.60 28.00 13.60
17.60 28.00 14.40
17.60 28.00 15.20
17.60 28.00 16.00
17.60 28.00 16.80
17.60 28.00 17.60
17.60 28.00 18.40
17.60 28.00 19.20
17.60 28.00 20.00
17.60 28.00 20.80
17.60 28.00 21.60
17.60 28.00 22.40
17.60 28.00 23.20
17.60 28.00 24.00
17.60 28.00 24.80
17.60 28.80 9.60
17.60 28.80 10.40
17.60 28.80 11.20
17.60 28.80 12.00
17.60 28.80 12.80
17.60 28.80 13.60
17.60 28.80 14.40
17.60 28.80 15.20
17.60 28.80 16.00
17.60 28.80 16.80
17.60 28.80 17.60
17.60 28.80 18.40
17.60 28.80 19.20
17.60 28.80 20.00
17.60 28.80 20.80
17.60 28.80 21.60
17.60 28.80 22.40
17.60 28.80 23.20
17.60 28.80 24.00
17.60 28.80 24.80
17.60 28.80 25.60
17.60 29.60 10.40
17.60 29.60 11.20
17.60 29.60 12.00
17.60 29.60 12.80
17.60 29.60 13.60
17.60 29.60 14.40
17.60 29.60 15.20
17.60 29.60 16.00
17.60 29.60 16.80
17.60 29.60 17.60
17.60 29.60 18.40
17.60 29.60 19.20
17.60 29.60 20.00
17.60 29.60 20.80
17.60 29.60 21.60
17.60 29.60 22.40
17.60 29.60 23.20
17.60 29.60 24.00
17.60 29.60 24.80
17.60 29.60 25.60
17.60 29.60 26.40
17.60 30.40 11.20
17.60 30.40 12.00
17.60 30.40 12.80
17.60 30.40 13.60
17.60 30.40 14.40
17.60 30.40 15.20
17.60 30.40 16.00
17.60 30.40 16.80
17.60 30.40 17.60
17.60 30.40 18.40
17.60 30.40 19.20
17.60 30.40 20.00
17.60 30.40 20.80
17.60 30.40 21.60
17.60 30.40 22.40
17.60 30.40 23.20
17.60 30.40 24.00
17.60 30.40 24.80
17.60 30.40 25.60
17.60 30.40 26.40
17.60 31.20 0.00
17.60 31.20 11.20
17.60 31.20 12.00
17.60 31.20 12.80
17.60 31.20 13.60
17.60 31.20 14.40
17.60 31.20 15.20
17.60 31.20 16.00
17.60 31.20 16.80
17.60 31.20 17.60
17.60 31.20 18.40
17.60 31.20 19.20
17.60 31.20 20.00
17.60 31.20 20.80
17.60 31.20 21.60
17.60 31.20 22.40
17.60 31.20 23.20
17.60 31.20 24.00
17.60 31.20 24.80
17.60 31.20 25.60
17.60 31.20 26.40
17.60 31.20 33.60
17.60 32.00 0.00
17.60 32.00 11.20
17.60 32.00 12.00
17.60 32.00 12.80
17.60 32.00 13.60
17.60 32.00 14.40
17.60 32.00 15.20
17.60 32.00 16.00
17.60 32.00 16.80
17.60 32.00 17.60
17.60 32.00 18.40
17.60 32.00 19.20
17.60 32.00 20.00
17.60 32.00 20.80
17.60 32.00 21.60
17.60 32.00 22.40
17.60 32.00 23.20
17.60 32.00 24.00
17.60 32.00 24.80
17.60 32.00 25.60
17.60 32.00 26.40
17.60 32.00 33.60
17.60 32.80 0.00
17.60 32.80 11.20
17.60 32.80 12.00
17.60 32.80 12.80
17.60 32.80 13.60
17.60 32.80 14.40
17.60 32.80 15.20
17.60 32.80 16.00
17.60 32.80 16.80
17.60 32.80 17.60
17.60 32.80 18.40
17.60 32.80 19.20
17.60 32.80 20.00
17.60 32.80 20.80
17.60 32.80 21.60
17.60 32.80 22.40
17.60 32.80 23.20
17.60 32.80 24.00
17.60 32.80 24.80
17.60 32.80 25.60
17.60 32.80 26.40
17.60 32.80 27.20
17.60 32.80 33.60
17.60 33.60 0.00
17.60 33.60 0.80
17.60 33.60 1.60
17.60 33.60 2.40
17.60 33.60 7.20
17.60 33.60 9.60
17.60 33.60 10.40
17.60 33.60 11.20
17.60 33.60 12.00
17.60 33.60 12.80
17.60 33.60 13.60
17.60 33.60 14.40
17.60 33.60 15.20
17.60 33.60 16.00
17.60 33.60 16.80
17.60 33.60 17.60
17.60 33.60 18.40
17.60 33.60 19.20
17.60 33.60 20.00
17.60 33.60 20.80
17.60 33.60 21.60
17.60 33.60 22.40
17.60 33.60 23.20
17.60 33.60 24.00
17.60 33.60 26.40
17.60 33.60 31.20
17.60 33.60 32.00
17.60 33.60 32.80
17.60 33.60 33.60
17.60 33.60 34.40
17.60 33.60 35.20
17.60 33.60 36.00
17.60 33.60 40.80
17.60 33.60 43.20
17.60 33.60 48.00
17.60 33.60 48.80
17.60 33.60 49.60
17.60 34.40 0.00
17.60 34.40 11.20
17.60 34.40 12.00
17.60 34.40 12.80
17.60 34.40 13.60
17.60 34.40 14.40
17.60 34.40 15.20
17.60 34.40 16.00
17.60 34.40 16.80
17.60 34.40 17.60
17.60 34.40 18.40
17.60 34.40 19.20
17.60 34.40 20.00
17.60 34.40 20.80
17.60 34.40 21.60
17.60 34.40 22.40
17.60 34.40 33.60
17.60 35.20 0.00
17.60 35.20 11.20
17.60 35.20 12.00
17.60 35.20 12.80
17.60 35.20 13.60
17.60 35.20 14.40
17.60 35.20 15.20
17.60 35.20 16.00
17.60 35.20 16.80
17.60 35.20 17.60
17.60 35.20 18.40
17.60 35.20 19.20
17.60 35.20 20.00
17.60 35.20 20.80
17.60 35.20 21.60
17.60 35.20 22.40
17.60 35.20 33.60
17.60 36.00 0.00
17.60 36.00 11.20
17.60 36.00 12.00
17.60 36.00 12.80
17.60 36.00 13.60
17.60 36.00 14.40
17.60 36.00 15.20
17.60 36.00 16.00
17.60 36.00 16.80
17.60 36.00 17.60
17.60 36.00 18.40
17.60 36.00 19.20
17.60 36.00 20.00
17.60 36.00 20.80
17.60 36.00 21.60
17.60 36.00 22.40
17.60 36.00 33.60
17.60 36.80 10.40
17.60 36.80 11.20
17.60 36.80 12.00
17.60 36.80 12.80
17.60 36.80 13.60
17.60 36.80 14.40
17.60 36.80 15.20
17.60 36.80 16.00
17.60 36.80 16.80
17.60 36.80 17.60
17.60 36.80 18.40
17.60 36.80 19.20
17.60 36.80 20.00
17.60 36.80 20.80
17.60 36.80 21.60
17.60 36.80 22.40
17.60 36.80 23.20
17.60 37.60 7.20
17.60 37.60 8.00
17.60 37.60 8.80
17.60 37.60 9.60
17.60 37.60 10.40
17.60 37.60 11.20
17.60 37.60 12.00
17.60 37.60 12.80
17.60 37.60 13.60
17.60 37.60 14.40
17.60 37.60 15.20
17.60 37.60 16.00
17.60 37.60 16.80
17.60 37.60 17.60
17.60 37.60 18.40
17.60 37.60 19.20
17.60 37.60 20.00
17.60 37.60 20.80
17.60 37.60 21.60
17.60 37.60 22.40
17.60 37.60 23.20
17.60 37.60 24.00
17.60 37.60 24.80
17.60 37.60 40.80
17.60 37.60 41.60
17.60 38.40 8.00
17.60 38.40 8.80
17.60 38.40 9.60
17.60 38.40 10.40
17.60 38.40 11.20
17.60 38.40 12.00
17.60 38.40 12.80
17.60 38.40 13.60
17.60 38.40 14.40
17.60 38.40 15.20
17.60 38.40 16.00
17.60 38.40 16.80
17.60 38.40 17.60
17.60 38.40 18.40
17.60 38.40 19.20
17.60 38.40 20.00
17.60 38.40 20.80
17.60 38.40 21.60
17.60 38.40 22.40
17.60 38.40 23.20
17.60 38.40 24.00
17.60 39.20 8.80
17.60 39.20 9.60
17.60 39.20 10.40
17.60 39.20 11.20
17.60 39.20 12.00
17.60 39.20 12.80
17.60 39.20 13.60
17.60 39.20 14.40
17.60 39.20 15.20
17.60 39.20 16.00
17.60 39.20 16.80
17.60 39.20 17.60
17.60 39.20 18.40
17.60 39.20 19.20
17.60 39.20 20.00
17.60 39.20 20.80
17.60 39.20 21.60
17.60 39.20 22.40
17.60 39.20 23.20
17.60 39.20 24.00
17.60 40.00 8.80
17.60 40.00 9.60
17.60 40.00 10.40
17.60 40.00 11.20
17.60 40.00 12.00
17.60 40.00 12.80
17.60 40.00 16.80
17.60 40.00 20.00
17.60 40.00 20.80
17.60 40.00 21.60
17.60 40.00 22.40
17.60 40.00 23.20
17.60 40.00 24.00
17.60 40.80 10.40
17.60 40.80 11.20
17.60 40.80 12.00
17.60 40.80 16.80
17.60 40.80 20.80
17.60 40.80 21.60
17.60 40.80 22.40
17.60 40.80 23.20
17.60 41.60 20.80
17.60 41.60 21.60
17.60 41.60 22.40
17.60 41.60 23.20
17.60 42.40 4.00
17.60 42.40 20.80
17.60 42.40 21.60
17.60 42.40 37.60
17.60 48.00 0.00
17.60 48.00 16.80
17.60 48.00 33.60
17.60 48.80 0.00
17.60 48.80 16.80
17.60 48.80 33.60
17.60 49.60 0.00
17.60 49.60 16.80
17.60 49.60 33.60
18.40 0.00 0.00
18.40 0.00 0.80
18.40 0.00 16.00
18.40 0.00 16.80
18.40 0.00 17.60
18.40 0.00 32.80
18.40 0.00 33.60
18.40 0.00 34.40
18.40 0.00 49.60
18.40 0.80 0.00
18.40 0.80 16.80
18.40 0.80 33.60
18.40 16.00 0.00
18.40 16.00 16.80
18.40 16.00 33.60
18.40 16.80 0.00
18.40 16.80 0.80
18.40 16.80 16.00
18.40 16.80 16.80
18.40 16.80 17.60
18.40 16.80 32.80
18.40 16.80 33.60
18.40 16.80 34.40
18.40 16.80 49.60
18.40 17.60 0.00
18.40 17.60 16.80
18.40 17.60 24.00
18.40 17.60 24.80
18.40 17.60 25.60
18.40 17.60 26.40
18.40 17.60 33.60
18.40 18.40 23.20
18.40 18.40 24.00
18.40 18.40 24.80
18.40 18.40 25.60
18.40 18.40 26.40
18.40 19.20 24.00
18.40 19.20 24.80
18.40 19.20 25.60
18.40 19.20 26.40
18.40 20.00 24.00
18.40 20.00 24.80
18.40 20.00 25.60
18.40 20.00 26.40
18.40 20.80 24.00
18.40 20.80 24.80
18.40 20.80 25.60
18.40 20.80 26.40
18.40 21.60 24.00
18.40 21.60 24.80
18.40 24.00 18.40
18.40 24.00 19.20
18.40 24.00 20.00
18.40 24.00 20.80
18.40 24.00 28.80
18.40 24.00 29.60
18.40 24.00 30.40
18.40 24.00 31.20
18.40 24.80 17.60
18.40 24.80 18.40
18.40 24.80 19.20
18.40 24.80 20.00
18.40 24.80 20.80
18.40 24.80 24.80
18.40 24.80 25.60
18.40 24.80 28.80
18.40 24.80 29.60
18.40 24.80 30.40
18.40 24.80 31.20
18.40 24.80 32.00
18.40 24.80 32.80
18.40 25.60 11.20
18.40 25.60 17.60
18.40 25.60 18.40
18.40 25.60 19.20
18.40 25.60 20.00
18.40 25.60 20.80
18.40 25.60 21.60
18.40 25.60 22.40
18.40 25.60 23.20
18.40 25.60 24.00
18.40 25.60 24.80
18.40 25.60 25.60
18.40 25.60 28.80
18.40 25.60 29.60
18.40 25.60 30.40
18.40 25.60 31.20
18.40 25.60 32.00
18.40 25.60 32.80
18.40 26.40 11.20
18.40 26.40 17.60
18.40 26.40 18.40
18.40 26.40 19.20
18.40 26.40 20.00
18.40 26.40 20.80
18.40 26.40 21.60
18.40 26.40 22.40
18.40 26.40 23.20
18.40 26.40 24.00
18.40 26.40 24.80
18.40 26.40 29.60
18.40 26.40 30.40
18.40 26.40 31.20
18.40 27.20 16.80
18.40 27.20 17.60
18.40 27.20 18.40
18.40 27.20 19.20
18.40 27.20 20.00
18.40 27.20 20.80
18.40 27.20 21.60
18.40 27.20 22.40
18.40 27.20 23.20
18.40 27.20 24.00
18.40 27.20 24.80
18.40 28.00 8.80
18.40 28.00 9.60
18.40 28.00 12.80
18.40 28.00 13.60
18.40 28.00 14.40
18.40 28.00 15.20
18.40 28.00 16.00
18.40 28.00 16.80
18.40 28.00 17.60
18.40 28.00 18.40
18.40 28.00 19.20
18.40 28.00 20.00
18.40 28.00 20.80
18.40 28.00 21.60
18.40 28.00 22.40
18.40 28.00 23.20
18.40 28.00 24.00
18.40 28.00 24.80
18.40 28.80 12.80
18.40 28.80 13.60
18.40 28.80 14.40
18.40 28.80 15.20
18.40 28.80 16.00
18.40 28.80 16.80
18.40 28.80 17.60
18.40 28.80 18.40
18.40 28.80 19.20
18.40 28.80 20.00
18.40 28.80 20.80
18.40 28.80 21.60
18.40 28.80 22.40
18.40 28.80 23.20
18.40 28.80 24.00
18.40 28.80 24.80
18.40 28.80 25.60
18.40 28.80 26.40
18.40 29.60 11.20
18.40 29.60 12.00
18.40 29.60 12.80
18.40 29.60 13.60
18.40 29.60 14.40
18.40 29.60 15.20
18.40 29.60 16.00
18.40 29.60 16.80
18.40 29.60 17.60
18.40 29.60 18.40
18.40 29.60 19.20
18.40 29.60 20.00
18.40 29.60 20.80
18.40 29.60 21.60
18.40 29.60 22.40
18.40 29.60 23.20
18.40 29.60 24.00
18.40 29.60 24.80
18.40 29.60 25.60
18.40 29.60 26.40
18.40 30.40 11.20
18.40 30.40 12.00
18.40 30.40 12.80
18.40 30.40 13.60
18.40 30.40 14.40
18.40 30.40 15.20
18.40 30.40 16.00
18.40 30.40 16.80
18.40 30.40 17.60
18.40 30.40 18.40
18.40 30.40 19.20
18.40 30.40 20.00
18.40 30.40 20.80
18.40 30.40 21.60
18.40 30.40 22.40
18.40 30.40 23.20
18.40 30.40 24.00
18.40 30.40 24.80
18.40 30.40 25.60
18.40 30.40 26.40
18.40 31.20 11.20
18.40 31.20 12.00
18.40 31.20 12.80
18.40 31.20 13.60
18.40 31.20 14.40
18.40 31.20 15.20
18.40 31.20 16.00
18.40 31.20 16.80
18.40 31.20 17.60
18.40 31.20 18.40
18.40 31.20 19.20
18.40 31.20 20.00
18.40 31.20 20.80
18.40 31.20 21.60
18.40 31.20 22.40
18.40 31.20 23.20
18.40 31.20 24.00
18.40 31.20 24.80
18.40 31.20 25.60
18.40 31.20 26.40
18.40 32.00 11.20
18.40 32.00 12.00
18.40 32.00 12.80
18.40 32.00 13.60
18.40 32.00 14.40
18.40 32.00 15.20
18.40 32.00 16.00
18.40 32.00 16.80
18.40 32.00 17.60
18.40 32.00 18.40
18.40 32.00 19.20
18.40 32.00 20.00
18.40 32.00 20.80
18.40 32.00 21.60
18.40 32.00 22.40
18.40 32.00 23.20
18.40 32.00 24.00
18.40 32.00 24.80
18.40 32.00 25.60
18.40 32.00 26.40
18.40 32.80 0.00
18.40 32.80 11.20
18.40 32.80 12.00
18.40 32.80 12.80
18.40 32.80 13.60
18.40 32.80 14.40
18.40 32.80 15.20
18.40 32.80 16.00
18.40 32.80 16.80
18.40 32.80 17.60
18.40 32.80 18.40
18.40 32.80 19.20
18.40 32.80 20.00
18.40 32.80 20.80
18.40 32.80 21.60
18.40 32.80 22.40
18.40 32.80 23.20
18.40 32.80 24.00
18.40 32.80 24.80
18.40 32.80 25.60
18.40 32.80 26.40
18.40 32.80 33.60
18.40 33.60 0.00
18.40 33.60 0.80
18.40 33.60 10.40
18.40 33.60 11.20
18.40 33.60 12.00
18.40 33.60 12.80
18.40 33.60 13.60
18.40 33.60 14.40
18.40 33.60 15.20
18.40 33.60 16.00
18.40 33.60 16.80
18.40 33.60 17.60
18.40 33.60 18.40
18.40 33.60 19.20
18.40 33.60 20.00
18.40 33.60 20.80
18.40 33.60 21.60
18.40 33.60 22.40
18.40 33.60 23.20
18.40 33.60 32.80
18.40 33.60 33.60
18.40 33.60 34.40
18.40 33.60 49.60
18.40 34.40 0.00
18.40 34.40 11.20
18.40 34.40 12.00
18.40 34.40 12.80
18.40 34.40 13.60
18.40 34.40 14.40
18.40 34.40 15.20
18.40 34.40 16.00
18.40 34.40 16.80
18.40 34.40 17.60
18.40 34.40 18.40
18.40 34.40 19.20
18.40 34.40 20.00
18.40 34.40 20.80
18.40 34.40 21.60
18.40 34.40 22.40
18.40 34.40 33.60
18.40 35.20 11.20
18.40 35.20 12.00
18.40 35.20 12.80
18.40 35.20 13.60
18.40 35.20 14.40
18.40 35.20 15.20
18.40 35.20 16.00
18.40 35.20 16.80
18.40 35.20 17.60
18.40 35.20 18.40
18.40 35.20 19.20
18.40 35.20 20.00
18.40 35.20 20.80
18.40 35.20 21.60
18.40 36.00 11.20
18.40 36.00 12.00
18.40 36.00 12.80
18.40 36.00 13.60
18.40 36.00 14.40
18.40 36.00 15.20
18.40 36.00 16.00
18.40 36.00 16.80
18.40 36.00 17.60
18.40 36.00 18.40
18.40 36.00 19.20
18.40 36.00 20.00
18.40 36.00 20.80
18.40 36.00 21.60
18.40 36.00 22.40
18.40 36.80 11.20
18.40 36.80 12.00
18.40 36.80 12.80
18.40 36.80 13.60
18.40 36.80 14.40
18.40 36.80 15.20
18.40 36.80 16.00
18.40 36.80 16.80
18.40 36.80 17.60
18.40 36.80 18.40
18.40 36.80 19.20
18.40 36.80 20.00
18.40 36.80 20.80
18.40 36.80 21.60
18.40 36.80 22.40
18.40 37.60 11.20
18.40 37.60 12.00
18.40 37.60 12.80
18.40 37.60 13.60
18.40 37.60 14.40
18.40 37.60 15.20
18.40 37.60 16.00
18.40 37.60 16.80
18.40 37.60 17.60
18.40 37.60 18.40
18.40 37.60 19.20
18.40 37.60 20.00
18.40 37.60 20.80
18.40 37.60 21.60
18.40 37.60 22.40
18.40 38.40 12.80
18.40 38.40 13.60
18.40 38.40 14.40
18.40 38.40 15.20
18.40 38.40 16.00
18.40 38.40 16.80
18.40 38.40 17.60
18.40 38.40 18.40
18.40 38.40 19.20
18.40 38.40 20.00
18.40 38.40 20.80
18.40 39.20 8.80
18.40 39.20 9.60
18.40 39.20 12.80
18.40 39.20 13.60
18.40 39.20 14.40
18.40 39.20 16.00
18.40 39.20 16.80
18.40 39.20 17.60
18.40 39.20 19.20
18.40 39.20 20.00
18.40 39.20 20.80
18.40 39.20 24.00
18.40 39.20 24.80
18.40 40.00 16.80
18.40 40.80 11.20
18.40 40.80 22.40
18.40 41.60 11.20
18.40 41.60 22.40
18.40 49.60 0.00
18.40 49.60 16.80
18.40 49.60 33.60
19.20 0.00 0.00
19.20 0.00 0.80
19.20 0.00 16.00
19.20 0.00 16.80
19.20 0.00 17.60
19.20 0.00 32.80
19.20 0.00 33.60
19.20 0.00 34.40
19.20 0.00 49.60
19.20 0.80 0.00
19.20 0.80 16.80
19.20 0.80 33.60
19.20 16.00 0.00
19.20 16.00 16.80
19.20 16.00 33.60
19.20 16.80 0.00
19.20 16.80 0.80
19.20 16.80 16.00
19.20 16.80 16.80
19.20 16.80 17.60
19.20 16.80 32.80
19.20 16.80 33.60
19.20 16.80 34.40
19.20 16.80 49.60
19.20 17.60 0.00
19.20 17.60 16.80
19.20 17.60 23.20
19.20 17.60 24.00
19.20 17.60 24.80
19.20 17.60 25.60
19.20 17.60 26.40
19.20 17.60 33.60
19.20 18.40 24.00
19.20 18.40 24.80
19.20 18.40 25.60
19.20 18.40 26.40
19.20 19.20 24.80
19.20 19.20 25.60
19.20 20.00 24.80
19.20 20.00 25.60
19.20 20.80 24.00
19.20 20.80 24.80
19.20 20.80 25.60
19.20 20.80 26.40
19.20 21.60 24.00
19.20 21.60 24.80
19.20 21.60 25.60
19.20 21.60 26.40
19.20 22.40 24.80
19.20 22.40 25.60
19.20 22.40 26.40
19.20 23.20 17.60
19.20 23.20 24.80
19.20 23.20 25.60
19.20 24.00 17.60
19.20 24.00 18.40
19.20 24.00 20.80
19.20 24.00 21.60
19.20 24.00 22.40
19.20 24.00 24.80
19.20 24.00 25.60
19.20 24.00 28.80
19.20 24.00 29.60
19.20 24.00 32.00
19.20 24.00 32.80
19.20 24.80 17.60
19.20 24.80 18.40
19.20 24.80 19.20
19.20 24.80 20.00
19.20 24.80 20.80
19.20 24.80 21.60
19.20 24.80 22.40
19.20 24.80 23.20
19.20 24.80 24.00
19.20 24.80 24.80
19.20 24.80 25.60
19.20 24.80 26.40
19.20 24.80 27.20
19.20 24.80 28.00
19.20 24.80 28.80
19.20 24.80 29.60
19.20 24.80 30.40
19.20 24.80 31.20
19.20 24.80 32.00
19.20 25.60 17.60
19.20 25.60 18.40
19.20 25.60 19.20
19.20 25.60 20.00
19.20 25.60 20.80
19.20 25.60 21.60
19.20 25.60 22.40
19.20 25.60 23.20
19.20 25.60 24.00
19.20 25.60 24.80
19.20 25.60 25.60
19.20 25.60 26.40
19.20 25.60 27.20
19.20 25.60 28.00
19.20 25.60 28.80
19.20 25.60 29.60
19.20 25.60 30.40
19.20 25.60 31.20
19.20 25.60 32.00
19.20 26.40 17.60
19.20 26.40 18.40
19.20 26.40 19.20
19.20 26.40 20.00
19.20 26.40 20.80
19.20 26.40 21.60
19.20 26.40 22.40
19.20 26.40 23.20
19.20 26.40 24.00
19.20 26.40 24.80
19.20 26.40 25.60
19.20 26.40 28.00
19.20 26.40 28.80
19.20 26.40 29.60
19.20 26.40 32.00
19.20 26.40 32.80
19.20 27.20 16.80
19.20 27.20 17.60
19.20 27.20 18.40
19.20 27.20 19.20
19.20 27.20 20.00
19.20 27.20 20.80
19.20 27.20 21.60
19.20 27.20 22.40
19.20 27.20 23.20
19.20 27.20 24.00
19.20 27.20 24.80
19.20 27.20 25.60
19.20 28.00 15.20
19.20 28.00 16.00
19.20 28.00 16.80
19.20 28.00 17.60
19.20 28.00 18.40
19.20 28.00 19.20
19.20 28.00 20.00
19.20 28.00 20.80
19.20 28.00 21.60
19.20 28.00 22.40
19.20 28.00 23.20
19.20 28.00 24.00
19.20 28.00 24.80
19.20 28.00 25.60
19.20 28.00 26.40
19.20 28.80 13.60
19.20 28.80 14.40
19.20 28.80 15.20
19.20 28.80 16.00
19.20 28.80 16.80
19.20 28.80 17.60
19.20 28.80 18.40
19.20 28.80 19.20
19.20 28.80 20.00
19.20 28.80 20.80
19.20 28.80 21.60
19.20 28.80 22.40
19.20 28.80 23.20
19.20 28.80 24.00
19.20 28.80 24.80
19.20 28.80 25.60
19.20 28.80 26.40
19.20 29.60 12.80
19.20 29.60 13.60
19.20 29.60 14.40
19.20 29.60 15.20
19.20 29.60 16.00
19.20 29.60 16.80
19.20 29.60 17.60
19.20 29.60 18.40
19.20 29.60 19.20
19.20 29.60 20.00
19.20 29.60 20.80
19.20 29.60 21.60
19.20 29.60 22.40
19.20 29.60 23.20
19.20 29.60 24.00
19.20 29.60 24.80
19.20 29.60 25.60
19.20 29.60 26.40
19.20 30.40 12.00
19.20 30.40 12.80
19.20 30.40 13.60
19.20 30.40 14.40
19.20 30.40 15.20
19.20 30.40 16.00
19.20 30.40 16.80
19.20 30.40 17.60
19.20 30.40 18.40
19.20 30.40 19.20
19.20 30.40 20.00
19.20 30.40 20.80
19.20 30.40 21.60
19.20 30.40 22.40
19.20 30.40 23.20
19.20 30.40 24.00
19.20 30.40 24.80
19.20 30.40 25.60
19.20 31.20 12.00
19.20 31.20 12.80
19.20 31.20 13.60
19.20 31.20 14.40
19.20 31.20 15.20
19.20 31.20 16.00
19.20 31.20 16.80
19.20 31.20 17.60
19.20 31.20 18.40
19.20 31.20 19.20
19.20 31.20 20.00
19.20 31.20 20.80
19.20 31.20 21.60
19.20 31.20 22.40
19.20 31.20 23.20
19.20 31.20 24.00
19.20 31.20 24.80
19.20 31.20 25.60
19.20 32.00 11.20
19.20 32.00 12.00
19.20 32.00 12.80
19.20 32.00 13.60
19.20 32.00 14.40
19.20 32.00 15.20
19.20 32.00 16.00
19.20 32.00 16.80
19.20 32.00 17.60
19.20 32.00 18.40
19.20 32.00 19.20
19.20 32.00 20.00
19.20 32.00 20.80
19.20 32.00 21.60
19.20 32.00 22.40
19.20 32.00 23.20
19.20 32.00 24.00
19.20 32.00 24.80
19.20 32.00 25.60
19.20 32.00 26.40
19.20 32.80 0.00
19.20 32.80 11.20
19.20 32.80 12.00
19.20 32.80 12.80
19.20 32.80 13.60
19.20 32.80 14.40
19.20 32.80 15.20
19.20 32.80 16.00
19.20 32.80 16.80
19.20 32.80 17.60
19.20 32.80 18.40
19.20 32.80 19.20
19.20 32.80 20.00
19.20 32.80 20.80
19.20 32.80 21.60
19.20 32.80 22.40
19.20 32.80 23.20
19.20 32.80 24.00
19.20 32.80 26.40
19.20 32.80 33.60
19.20 33.60 0.00
19.20 33.60 0.80
19.20 33.60 10.40
19.20 33.60 11.20
19.20 33.60 12.00
19.20 33.60 12.80
19.20 33.60 13.60
19.20 33.60 14.40
19.20 33.60 15.20
19.20 33.60 16.00
19.20 33.60 16.80
19.20 33.60 17.60
19.20 33.60 18.40
19.20 33.60 19.20
19.20 33.60 20.00
19.20 33.60 20.80
19.20 33.60 21.60
19.20 33.60 22.40
19.20 33.60 23.20
19.20 33.60 32.80
19.20 33.60 33.60
19.20 33.60 34.40
19.20 33.60 49.60
19.20 34.40 0.00
19.20 34.40 11.20
19.20 34.40 12.00
19.20 34.40 12.80
19.20 34.40 13.60
19.20 34.40 14.40
19.20 34.40 15.20
19.20 34.40 16.00
19.20 34.40 16.80
19.20 34.40 17.60
19.20 34.40 18.40
19.20 34.40 19.20
19.20 34.40 20.00
19.20 34.40 20.80
19.20 34.40 21.60
19.20 34.40 22.40
19.20 34.40 33.60
19.20 35.20 11.20
19.20 35.20 12.00
19.20 35.20 12.80
19.20 35.20 13.60
19.20 35.20 14.40
19.20 35.20 15.20
19.20 35.20 16.00
19.20 35.20 16.80
19.20 35.20 17.60
19.20 35.20 18.40
19.20 35.20 19.20
19.20 35.20 20.00
19.20 35.20 20.80
19.20 35.20 21.60
19.20 35.20 22.40
19.20 36.00 12.00
19.20 36.00 12.80
19.20 36.00 13.60
19.20 36.00 14.40
19.20 36.00 15.20
19.20 36.00 16.00
19.20 36.00 16.80
19.20 36.00 17.60
19.20 36.00 18.40
19.20 36.00 19.20
19.20 36.00 20.00
19.20 36.00 20.80
19.20 36.00 21.60
19.20 36.80 12.00
19.20 36.80 12.80
19.20 36.80 13.60
19.20 36.80 14.40
19.20 36.80 15.20
19.20 36.80 16.00
19.20 36.80 16.80
19.20 36.80 17.60
19.20 36.80 18.40
19.20 36.80 19.20
19.20 36.80 20.00
19.20 36.80 20.80
19.20 36.80 21.60
19.20 37.60 12.80
19.20 37.60 13.60
19.20 37.60 14.40
19.20 37.60 15.20
19.20 37.60 16.00
19.20 37.60 16.80
19.20 37.60 17.60
19.20 37.60 18.40
19.20 37.60 19.20
19.20 37.60 20.00
19.20 37.60 20.80
19.20 38.40 13.60
19.20 38.40 14.40
19.20 38.40 15.20
19.20 38.40 16.00
19.20 38.40 16.80
19.20 38.40 17.60
19.20 38.40 18.40
19.20 38.40 19.20
19.20 38.40 20.00
19.20 39.20 15.20
19.20 39.20 16.00
19.20 39.20 16.80
19.20 39.20 17.60
19.20 39.20 18.40
19.20 40.00 16.80
19.20 49.60 0.00
19.20 49.60 16.80
19.20 49.60 33.60
20.00 0.00 0.00
20.00 0.00 16.80
20.00 0.00 33.60
20.00 16.80 0.00
20.00 16.80 16.80
20.00 16.80 24.00
20.00 16.80 24.80
20.00 16.80 25.60
20.00 16.80 26.40
20.00 16.80 33.60
20.00 17.60 24.00
20.00 17.60 24.80
20.00 17.60 25.60
20.00 17.60 26.40
20.00 18.40 24.00
20.00 18.40 24.80
20.00 18.40 25.60
20.00 18.40 26.40
20.00 19.20 24.80
20.00 19.20 25.60
20.00 20.00 24.80
20.00 20.00 25.60
20.00 20.80 24.00
20.00 20.80 24.80
20.00 20.80 25.60
20.00 20.80 26.40
20.00 21.60 23.20
20.00 21.60 24.00
20.00 21.60 24.80
20.00 21.60 25.60
20.00 21.60 26.40
20.00 21.60 27.20
20.00 22.40 22.40
20.00 22.40 23.20
20.00 22.40 24.00
20.00 22.40 24.80
20.00 22.40 25.60
20.00 22.40 26.40
20.00 22.40 27.20
20.00 22.40 28.00
20.00 23.20 21.60
20.00 23.20 22.40
20.00 23.20 23.20
20.00 23.20 24.00
20.00 23.20 24.80
20.00 23.20 25.60
20.00 23.20 26.40
20.00 23.20 27.20
20.00 23.20 28.00
20.00 23.20 28.80
20.00 24.00 16.80
20.00 24.00 17.60
20.00 24.00 18.40
20.00 24.00 20.80
20.00 24.00 21.60
20.00 24.00 22.40
20.00 24.00 23.20
20.00 24.00 24.00
20.00 24.00 24.80
20.00 24.00 25.60
20.00 24.00 26.40
20.00 24.00 27.20
20.00 24.00 28.00
20.00 24.00 28.80
20.00 24.00 29.60
20.00 24.00 32.00
20.00 24.00 32.80
20.00 24.80 16.80
20.00 24.80 17.60
20.00 24.80 18.40
20.00 24.80 19.20
20.00 24.80 20.00
20.00 24.80 20.80
20.00 24.80 21.60
20.00 24.80 22.40
20.00 24.80 23.20
20.00 24.80 24.00
20.00 24.80 24.80
20.00 24.80 25.60
20.00 24.80 26.40
20.00 24.80 27.20
20.00 24.80 28.00
20.00 24.80 28.80
20.00 24.80 29.60
20.00 24.80 30.40
20.00 24.80 31.20
20.00 24.80 32.00
20.00 25.60 16.80
20.00 25.60 17.60
20.00 25.60 18.40
20.00 25.60 19.20
20.00 25.60 20.00
20.00 25.60 20.80
20.00 25.60 21.60
20.00 25.60 22.40
20.00 25.60 23.20
20.00 25.60 24.00
20.00 25.60 24.80
20.00 25.60 25.60
20.00 25.60 26.40
20.00 25.60 27.20
20.00 25.60 28.00
20.00 25.60 28.80
20.00 25.60 29.60
20.00 25.60 30.40
20.00 25.60 31.20
20.00 25.60 32.00
20.00 26.40 16.80
20.00 26.40 17.60
20.00 26.40 18.40
20.00 26.40 19.20
20.00 26.40 20.00
20.00 26.40 20.80
20.00 26.40 21.60
20.00 26.40 22.40
20.00 26.40 23.20
20.00 26.40 24.00
20.00 26.40 24.80
20.00 26.40 25.60
20.00 26.40 26.40
20.00 26.40 27.20
20.00 26.40 28.00
20.00 26.40 28.80
20.00 26.40 29.60
20.00 26.40 32.00
20.00 26.40 32.80
20.00 27.20 16.00
20.00 27.20 16.80
20.00 27.20 17.60
20.00 27.20 18.40
20.00 27.20 19.20
20.00 27.20 20.00
20.00 27.20 20.80
20.00 27.20 21.60
20.00 27.20 22.40
20.00 27.20 23.20
20.00 27.20 24.00
20.00 27.20 24.80
20.00 27.20 25.60
20.00 27.20 26.40
20.00 27.20 27.20
20.00 27.20 28.00
20.00 27.20 28.80
20.00 28.00 15.20
20.00 28.00 16.00
20.00 28.00 16.80
20.00 28.00 17.60
20.00 28.00 18.40
20.00 28.00 19.20
20.00 28.00 20.00
20.00 28.00 20.80
20.00 28.00 21.60
20.00 28.00 22.40
20.00 28.00 23.20
20.00 28.00 24.00
20.00 28.00 24.80
20.00 28.00 25.60
20.00 28.00 26.40
20.00 28.00 27.20
20.00 28.00 28.00
20.00 28.80 13.60
20.00 28.80 14.40
20.00 28.80 15.20
20.00 28.80 16.00
20.00 28.80 16.80
20.00 28.80 17.60
20.00 28.80 18.40
20.00 28.80 19.20
20.00 28.80 20.00
20.00 28.80 20.80
20.00 28.80 21.60
20.00 28.80 22.40
20.00 28.80 23.20
20.00 28.80 24.00
20.00 28.80 24.80
20.00 28.80 25.60
20.00 28.80 26.40
20.00 28.80 27.20
20.00 29.60 12.80
20.00 29.60 13.60
20.00 29.60 14.40
20.00 29.60 15.20
20.00 29.60 16.00
20.00 29.60 16.80
20.00 29.60 17.60
20.00 29.60 18.40
20.00 29.60 19.20
20.00 29.60 20.00
20.00 29.60 20.80
20.00 29.60 21.60
20.00 29.60 22.40
20.00 29.60 23.20
20.00 29.60 24.00
20.00 29.60 24.80
20.00 29.60 25.60
20.00 29.60 26.40
20.00 30.40 12.00
20.00 30.40 12.80
20.00 30.40 13.60
20.00 30.40 14.40
20.00 30.40 15.20
20.00 30.40 16.00
20.00 30.40 16.80
20.00 30.40 17.60
20.00 30.40 18.40
20.00 30.40 19.20
20.00 30.40 20.00
20.00 30.40 20.80
20.00 30.40 21.60
20.00 30.40 22.40
20.00 30.40 23.20
20.00 30.40 24.00
20.00 30.40 24.80
20.00 30.40 25.60
20.00 31.20 12.00
20.00 31.20 12.80
20.00 31.20 13.60
20.00 31.20 14.40
20.00 31.20 15.20
20.00 31.20 16.00
20.00 31.20 16.80
20.00 31.20 17.60
20.00 31.20 18.40
20.00 31.20 19.20
20.00 31.20 20.00
20.00 31.20 20.80
20.00 31.20 21.60
20.00 31.20 22.40
20.00 31.20 23.20
20.00 31.20 24.00
20.00 31.20 24.80
20.00 31.20 25.60
20.00 32.00 11.20
20.00 32.00 12.00
20.00 32.00 12.80
20.00 32.00 13.60
20.00 32.00 14.40
20.00 32.00 15.20
20.00 32.00 16.00
20.00 32.00 16.80
20.00 32.00 17.60
20.00 32.00 18.40
20.00 32.00 19.20
20.00 32.00 20.00
20.00 32.00 20.80
20.00 32.00 21.60
20.00 32.00 22.40
20.00 32.00 23.20
20.00 32.00 24.00
20.00 32.00 24.80
20.00 32.00 25.60
20.00 32.00 26.40
20.00 32.80 10.40
20.00 32.80 11.20
20.00 32.80 12.00
20.00 32.80 12.80
20.00 32.80 13.60
20.00 32.80 14.40
20.00 32.80 15.20
20.00 32.80 16.00
20.00 32.80 16.80
20.00 32.80 17.60
20.00 32.80 18.40
20.00 32.80 19.20
20.00 32.80 20.00
20.00 32.80 20.80
20.00 32.80 21.60
20.00 32.80 22.40
20.00 32.80 23.20
20.00 32.80 24.00
20.00 32.80 26.40
20.00 33.60 0.00
20.00 33.60 10.40
20.00 33.60 11.20
20.00 33.60 12.00
20.00 33.60 12.80
20.00 33.60 13.60
20.00 33.60 14.40
20.00 33.60 15.20
20.00 33.60 16.00
20.00 33.60 16.80
20.00 33.60 17.60
20.00 33.60 18.40
20.00 33.60 19.20
20.00 33.60 20.00
20.00 33.60 20.80
20.00 33.60 21.60
20.00 33.60 22.40
20.00 33.60 23.20
20.00 33.60 33.60
20.00 34.40 11.20
20.00 34.40 12.00
20.00 34.40 12.80
20.00 34.40 13.60
20.00 34.40 14.40
20.00 34.40 15.20
20.00 34.40 16.00
20.00 34.40 16.80
20.00 34.40 17.60
20.00 34.40 18.40
20.00 34.40 19.20
20.00 34.40 20.00
20.00 34.40 20.80
20.00 34.40 21.60
20.00 34.40 22.40
20.00 35.20 11.20
20.00 35.20 12.00
20.00 35.20 12.80
20.00 35.20 13.60
20.00 35.20 14.40
20.00 35.20 15.20
20.00 35.20 16.00
20.00 35.20 16.80
20.00 35.20 17.60
20.00 35.20 18.40
20.00 35.20 19.20
20.00 35.20 20.00
20.00 35.20 20.80
20.00 35.20 21.60
20.00 35.20 22.40
20.00 36.00 12.00
20.00 36.00 12.80
20.00 36.00 13.60
20.00 36.00 14.40
20.00 36.00 15.20
20.00 36.00 16.00
20.00 36.00 16.80
20.00 36.00 17.60
20.00 36.00 18.40
20.00 36.00 19.20
20.00 36.00 20.00
20.00 36.00 20.80
20.00 36.00 21.60
20.00 36.80 12.00
20.00 36.80 12.80
20.00 36.80 13.60
20.00 36.80 14.40
20.00 36.80 15.20
20.00 36.80 16.00
20.00 36.80 16.80
20.00 36.80 17.60
20.00 36.80 18.40
20.00 36.80 19.20
20.00 36.80 20.00
20.00 36.80 20.80
20.00 36.80 21.60
20.00 37.60 12.80
20.00 37.60 13.60
20.00 37.60 14.40
20.00 37.60 15.20
20.00 37.60 16.00
20.00 37.60 16.80
20.00 37.60 17.60
20.00 37.60 18.40
20.00 37.60 19.20
20.00 37.60 20.00
20.00 37.60 20.80
20.00 38.40 13.60
20.00 38.40 14.40
20.00 38.40 15.20
20.00 38.40 16.00
20.00 38.40 16.80
20.00 38.40 17.60
20.00 38.40 18.40
20.00 38.40 19.20
20.00 38.40 20.00
20.00 39.20 15.20
20.00 39.20 16.00
20.00 39.20 16.80
20.00 39.20 17.60
20.00 39.20 18.40
20.00 40.00 16.00
20.00 40.00 16.80
20.80 8.80 16.00
20.80 8.80 32.80
20.80 8.80 49.60
20.80 16.00 8.80
20.80 16.00 25.60
20.80 16.00 42.40
20.80 16.80 25.60
20.80 17.60 25.60
20.80 18.40 24.00
20.80 18.40 24.80
20.80 18.40 25.60
20.80 18.40 26.40
20.80 19.20 24.00
20.80 19.20 24.80
20.80 19.20 25.60
20.80 19.20 26.40
20.80 20.00 24.00
20.80 20.00 24.80
20.80 20.00 25.60
20.80 20.00 26.40
20.80 20.80 24.00
20.80 20.80 24.80
20.80 20.80 25.60
20.80 20.80 26.40
20.80 21.60 21.60
20.80 21.60 22.40
20.80 21.60 23.20
20.80 21.60 24.00
20.80 21.60 24.80
20.80 21.60 25.60
20.80 21.60 26.40
20.80 21.60 27.20
20.80 21.60 28.00
20.80 21.60 28.80
20.80 22.40 21.60
20.80 22.40 22.40
20.80 22.40 23.20
20.80 22.40 24.00
20.80 22.40 24.80
20.80 22.40 25.60
20.80 22.40 26.40
20.80 22.40 27.20
20.80 22.40 28.00
20.80 22.40 28.80
20.80 23.20 21.60
20.80 23.20 22.40
20.80 23.20 23.20
20.80 23.20 24.00
20.80 23.20 24.80
20.80 23.20 25.60
20.80 23.20 26.40
20.80 23.20 27.20
20.80 23.20 28.00
20.80 23.20 28.80
20.80 24.00 18.40
20.80 24.00 19.20
20.80 24.00 20.00
20.80 24.00 20.80
20.80 24.00 21.60
20.80 24.00 22.40
20.80 24.00 23.20
20.80 24.00 24.00
20.80 24.00 24.80
20.80 24.00 25.60
20.80 24.00 26.40
20.80 24.00 27.20
20.80 24.00 28.00
20.80 24.00 28.80
20.80 24.00 29.60
20.80 24.00 30.40
20.80 24.00 31.20
20.80 24.00 32.00
20.80 24.80 18.40
20.80 24.80 19.20
20.80 24.80 20.00
20.80 24.80 20.80
20.80 24.80 21.60
20.80 24.80 22.40
20.80 24.80 23.20
20.80 24.80 24.00
20.80 24.80 24.80
20.80 24.80 25.60
20.80 24.80 26.40
20.80 24.80 27.20
20.80 24.80 28.00
20.80 24.80 28.80
20.80 24.80 29.60
20.80 24.80 30.40
20.80 24.80 31.20
20.80 24.80 32.00
20.80 25.60 16.00
20.80 25.60 16.80
20.80 25.60 17.60
20.80 25.60 18.40
20.80 25.60 19.20
20.80 25.60 20.00
20.80 25.60 20.80
20.80 25.60 21.60
20.80 25.60 22.40
20.80 25.60 23.20
20.80 25.60 24.00
20.80 25.60 24.80
20.80 25.60 25.60
20.80 25.60 26.40
20.80 25.60 27.20
20.80 25.60 28.00
20.80 25.60 28.80
20.80 25.60 29.60
20.80 25.60 30.40
20.80 25.60 31.20
20.80 25.60 32.00
20.80 25.60 32.80
20.80 25.60 49.60
20.80 26.40 16.00
20.80 26.40 16.80
20.80 26.40 17.60
20.80 26.40 18.40
20.80 26.40 19.20
20.80 26.40 20.00
20.80 26.40 20.80
20.80 26.40 21.60
20.80 26.40 22.40
20.80 26.40 23.20
20.80 26.40 24.00
